# .PCD v0.7 - Point Cloud Data file format
VERSION 0.7
FIELDS x y z
SIZE 4 4 4
TYPE F F F
COUNT 1 1 1
WIDTH 1580
HEIGHT 1
VIEWPOINT 0 0 0 1 0 0 0
POINTS 1580
DATA ascii
9.2451477 6.3448782 1.8554301
9.3381042 6.349041 1.8354092
9.4292603 6.3771439 1.8110218
3.0899963 6.4000001 1.8000002
3.1459351 6.4302273 1.815002
3.2474365 6.4408555 1.8580003
3.3457947 6.4518418 1.8831587
3.4428711 6.4431586 1.8649125
3.5423279 6.439333 1.8536673
3.6441345 6.4441376 1.8558621
3.7464294 6.4403996 1.8648009
3.8406067 6.4394116 1.8597064
3.9454651 6.4427261 1.8515158
4.0356445 6.4493747 1.84375
4.1503906 6.4457684 1.8380761
4.2452393 6.447619 1.8452373
4.3500061 6.4400001 1.8426652
4.4508972 6.4463625 1.8468175
4.5493469 6.4467349 1.8653064
4.6360474 6.433948 1.8842101
4.7232971 6.4033332 1.8899999
6.0766602 6.4099998 1.8899999
8.1679993 6.4207988 1.8823991
8.2280273 6.4545455 1.8561816
9.2900085 6.4000001 1.8800001
9.4666748 6.4033332 1.8000002
9.539978 6.4799995 1.855
3.1900024 6.5100002 1.8000002
3.2535095 6.5344992 1.8215003
3.3480835 6.547924 1.8490572
3.4396667 6.5388455 1.8407698
3.5435486 6.5482144 1.836071
3.6416016 6.54 1.8443995
3.7431335 6.5506248 1.8537498
3.8458557 6.5416665 1.8549995
3.943512 6.544117 1.8447051
4.0515137 6.5385008 1.8384995
4.1578369 6.5500002 1.8315797
4.2403564 6.5424132 1.8413792
4.3595276 6.5485711 1.8495231
4.449707 6.5418186 1.8584847
4.5428772 6.5377083 1.8766675
4.618988 6.539 1.8899999
8.2675171 6.5062504 1.8500004
8.3375244 6.5524998 1.8849998
9.5749817 6.5183334 1.8899999
9.6589661 6.5541587 1.86022
9.7113647 6.5829988 1.8293347
3.2799988 6.605 1.8050003
3.3518066 6.628571 1.8132148
3.4390259 6.6516657 1.8243337
3.5480042 6.6468568 1.8151426
3.6408997 6.6493177 1.8250008
3.7427063 6.661819 1.8463635
3.8505554 6.6494436 1.8572221
3.9410706 6.6461115 1.8455553
4.051178 6.6494112 1.8382344
4.1442871 6.6500006 1.8338099
4.2510986 6.6433334 1.8391666
4.3471375 6.6399999 1.8492856
4.4503174 6.6439991 1.8614287
4.5413208 6.6452775 1.8836117
4.6099854 6.6099997 1.8899999
8.3800049 6.5999999 1.8800001
8.4249878 6.6450005 1.8824997
9.7560425 6.6330652 1.8416219
9.8112793 6.6789479 1.8347573
3.4533691 6.7185712 1.8080955
3.5311584 6.7320004 1.8016014
3.6430054 6.7279997 1.8085003
3.742981 6.7309999 1.835
3.8744507 6.7366667 1.8511105
3.955719 6.7542863 1.8400002
4.0408325 6.7552004 1.8316002
4.1428528 6.7528563 1.8357143
4.2503662 6.7511106 1.8437023
4.3453369 6.749332 1.8623343
4.4429321 6.7486844 1.8736849
4.5290527 6.7393942 1.886363
8.5700073 6.7600002 1.8899999
9.8586121 6.7314253 1.8495431
9.9122314 6.7774267 1.8359089
3.6529846 6.8319998 1.8009996
3.7445984 6.8441663 1.8166666
3.8545227 6.8587103 1.8412905
3.9404602 6.8453503 1.8313961
4.0526733 6.8446155 1.8199997
4.1420593 6.8547058 1.8264718
4.2489014 6.8482218 1.8437777
4.338623 6.8442225 1.8691111
4.4389954 6.8406672 1.8869996
8.6300049 6.8099999 1.8800001
9.9588928 6.8362432 1.8485994
10.005493 6.8800015 1.8219156
3.769989 6.918571 1.804286
3.8519287 6.9311104 1.8127785
3.9454041 6.9283776 1.8070278
4.0409241 6.9456248 1.8156257
4.1496277 6.9415898 1.8315907
4.2426453 6.9435844 1.8592463
4.3378296 6.9366665 1.8797622
4.4191284 6.9291673 1.8899999
8.6400146 6.9400001 1.8200002
9.9899902 6.9099998 1.8899999
10.040894 6.9407706 1.8452401
4.0575867 7.0421062 1.8081584
4.1484985 7.0465193 1.8376088
4.2409668 7.0498457 1.8724604
4.3280334 7.0205002 1.8884997
8.7099915 7.0100002 1.8699999
8.8300171 7.0900002 1.8299999
8.9500122 7.04 1.8699999
9.5899963 7.0100002 1.8299999
9.6773376 7.0799994 1.8163157
9.7000122 7.085 1.8199997
10.08374 7.0111852 1.857636
10.120453 7.0527382 1.8407655
4.0708008 7.1488571 1.8085723
4.1484985 7.1471086 1.8454199
4.2246399 7.1382055 1.8807693
8.862793 7.1218648 1.837687
9.6859741 7.1019998 1.8200002
9.7454834 7.1505113 1.8317952
9.7999878 7.1799998 1.8600001
10.166718 7.1380615 1.8466311
10.204315 7.1850009 1.8167853
4.0800171 7.2212496 1.8081255
4.1406555 7.2497826 1.8352189
4.238739 7.2548923 1.8763828
9.2000122 7.27 1.8800001
9.7850037 7.21 1.8399997
9.8265381 7.2452464 1.8495073
10.188232 7.2041159 1.8738236
10.222992 7.2491608 1.840941
4.1577148 7.345768 1.8261528
4.2227173 7.3363466 1.8723078
4.2999878 7.3600001 1.8899999
9.3633118 7.3783326 1.8716664
9.4100037 7.3499999 1.8200002
9.8754578 7.3132277 1.8583875
9.9231262 7.3630776 1.8698077
10.26355 7.3455424 1.846487
4.1720886 7.4374423 1.8176751
4.2250977 7.4498301 1.8599997
4.3659363 7.4550004 1.8849993
4.3999939 7.4639997 1.8899999
9.3862 7.4047613 1.8761902
9.4534607 7.4462743 1.8679819
9.5150146 7.4726052 1.8595638
9.9736023 7.4223533 1.8827453
10.00946 7.4589477 1.8884206
10.285553 7.418221 1.8616672
10.316345 7.4564857 1.8389688
4.1900024 7.5250001 1.8000002
4.237915 7.5389161 1.8353004
4.3258667 7.549655 1.8793092
9.2484741 7.5803843 1.8019238
9.2999878 7.5900002 1.8200002
9.5567322 7.5222816 1.8273253
9.6221008 7.5587473 1.8098192
10.349915 7.5399261 1.8434629
4.261322 7.6279998 1.8153334
4.3446045 7.6528373 1.8452239
4.4172668 7.6700001 1.8790908
9.2774963 7.6097512 1.8115005
9.3330994 7.6582613 1.8366303
10.375275 7.6442466 1.8483124
10.399994 7.6824999 1.8850002
4.3665161 7.7420011 1.8211427
4.4291077 7.7497373 1.870132
9.3832092 7.7109318 1.8611636
9.4255981 7.7497568 1.8812218
10.230011 7.79 1.8800001
10.384674 7.7190776 1.8238463
10.40448 7.7343287 1.8713431
4.3807068 7.8135719 1.8107142
4.4408569 7.8461623 1.8502002
4.5 7.8800001 1.8800001
9.460022 7.8000002 1.8899999
9.6352539 7.8891997 1.8827996
10.266266 7.8418417 1.8668418
10.382446 7.858108 1.8264866
10.404358 7.8534374 1.8703122
4.4721069 7.9179401 1.8194122
4.5386353 7.9484606 1.8462815
4.6399841 7.9668756 1.8734369
4.714447 7.98 1.8866668
9.6196289 7.9239292 1.8757153
10.378571 7.95156 1.8389187
10.408417 7.9651637 1.8595452
4.5754089 8.0107689 1.8076925
4.6536255 8.044445 1.8299994
4.736969 8.0545149 1.873064
10.381805 8.0130301 1.8427272
10.438934 8.0483227 1.8456483
4.6800232 8.1066666 1.8000002
4.753479 8.1269026 1.8376055
4.8323364 8.1650009 1.8551612
4.9033203 8.1866665 1.8833332
10.476471 8.1185942 1.8435025
10.519196 8.1630535 1.8437004
4.8727417 8.2099991 1.8250003
4.9459839 8.2445927 1.8421626
5.0377502 8.2732248 1.8712912
9.9389954 8.2770004 1.8899999
10.48999 8.2049999 1.8800001
10.563873 8.2321062 1.8443327
10.612335 8.2751999 1.8472352
4.980011 8.3000002 1.8000002
5.0580139 8.3227434 1.8237262
5.1381531 8.3583002 1.8538294
5.2099915 8.3900003 1.8899999
9.9721375 8.3228569 1.8889794
10.019928 8.3715458 1.88446
10.577332 8.3229971 1.8743353
10.653107 8.3387022 1.8405442
10.715576 8.3759584 1.8418164
5.1651917 8.4332352 1.8173532
5.2384949 8.4563608 1.8595862
10.068634 8.4253111 1.8810391
10.114288 8.4729805 1.8753519
10.654236 8.4365854 1.8718233
10.760651 8.4361029 1.8430309
10.810608 8.4813557 1.8395467
5.1871033 8.5128574 1.8014288
5.2470703 8.5470877 1.8463888
5.2999878 8.5620003 1.8899999
10.165802 8.5301752 1.8705492
10.212433 8.5778389 1.8673158
10.67984 8.5314283 1.8755107
10.743622 8.5393982 1.8759851
10.855927 8.5366869 1.8460035
10.904755 8.583703 1.838182
5.2619629 8.6396704 1.8417134
5.3063965 8.6712008 1.8811998
10.260498 8.6358347 1.8652563
10.307098 8.6815157 1.8643918
10.754578 8.6410971 1.8798666
10.855042 8.618 1.8860002
10.950623 8.6434965 1.8488865
11 8.686595 1.8308511
5.2807617 8.7143593 1.8194876
5.3323669 8.7525358 1.8507323
10.354797 8.7387838 1.8659005
10.404602 8.7842875 1.8657146
10.782104 8.7172098 1.881629
10.815063 8.7567043 1.8860035
10.9888 8.707881 1.8706069
11.022339 8.7483559 1.8432121
5.3730469 8.8227367 1.8345232
5.4191895 8.8624992 1.8559265
10.450958 8.842474 1.8695869
10.501678 8.8880529 1.8734145
10.854248 8.8420763 1.8896294
10.916351 8.8654547 1.8036366
11.066925 8.8445091 1.8426595
11.100037 8.8893328 1.8113337
5.4671631 8.9223661 1.8374186
5.5301514 8.9686146 1.8527651
10.48999 8.9049997 1.8800001
10.54483 8.9458838 1.8784776
10.601471 8.9892836 1.8814292
10.885468 8.9109097 1.8899999
10.942291 8.9539003 1.8364987
11.08847 8.9085712 1.8506374
11.128113 8.9544334 1.8437076
5.5783997 9.0113468 1.8317318
5.6394958 9.0581369 1.8494668
10.589661 9.0029726 1.8845944
10.635498 9.0429621 1.8865123
10.974762 9.0314054 1.8539062
11.01001 9.0668745 1.875
11.175293 9.0343666 1.8479834
11.203827 9.0769062 1.8413496
5.6812439 9.116663 1.8281479
5.7185974 9.1584806 1.8511295
10.685944 9.1013327 1.8899999
10.709381 9.1241179 1.8876467
11.019196 9.1099997 1.8858333
11.189972 9.0999994 1.8685718
11.23175 9.1448812 1.844049
5.7645569 9.2286167 1.8405504
5.8270264 9.2728853 1.8564873
10.890015 9.29 1.8899999
11.270172 9.2441483 1.8472581
11.302155 9.2840929 1.8206778
5.8603821 9.3316183 1.8362427
5.9210815 9.3694248 1.8629823
11.289368 9.3029127 1.8709707
11.32959 9.3464746 1.8434191
5.9642334 9.4179363 1.8352566
6.0292664 9.4624596 1.8518534
11.140076 9.4825001 1.8899999
11.367035 9.4439459 1.8466063
11.401276 9.479991 1.8083038
6.0737305 9.5141706 1.8383317
6.1318359 9.5608063 1.8496709
11.1492 9.5456514 1.8811874
11.383026 9.5133047 1.8694692
11.416656 9.5507164 1.8351698
6.1780396 9.6123095 1.8370509
6.2294922 9.6597891 1.8489122
11.167755 9.6377144 1.8603892
11.390015 9.6099997 1.8899999
11.438812 9.6451969 1.8342161
6.2771301 9.7109289 1.8347411
6.3390198 9.7588902 1.8483262
11.186554 9.7242489 1.8412499
11.202118 9.7635717 1.8335714
11.44754 9.7462807 1.841392
6.3825378 9.8128185 1.8330889
6.4240112 9.8581047 1.8508377
11.185974 9.8140011 1.8239999
11.213684 9.8386345 1.818037
11.45697 9.8441896 1.8476954
6.4704285 9.9358978 1.8423281
6.5058289 9.9809475 1.8601203
11.232788 9.9266682 1.8033333
11.457977 9.9470043 1.854208
11.502228 9.9744434 1.8055553
6.5490723 10.045434 1.8438911
6.6000061 10.08 1.8899999
11.477997 10.022679 1.8669052
11.514496 10.065926 1.8543382
6.585144 10.104616 1.8228216
6.6325684 10.149988 1.8478642
11.554932 10.146001 1.8589606
11.60318 10.184471 1.8193626
6.6821899 10.208706 1.8399181
6.7278748 10.256992 1.847219
11.585876 10.210305 1.8739486
11.620239 10.251002 1.8466082
6.7687988 10.319472 1.839016
6.8158569 10.367799 1.8495932
11.647614 10.344698 1.8490481
6.8609009 10.435184 1.8404922
6.9092712 10.478962 1.860548
11.649414 10.444332 1.8491435
11.70401 10.482 1.8100004
6.9468079 10.54391 1.8454809
7.0089111 10.582223 1.8883333
11.679077 10.52611 1.8581676
11.710571 10.568832 1.8407946
6.9838562 10.60956 1.8392076
7.0322571 10.653899 1.8481545
11.722443 10.644119 1.8501072
7.0710449 10.711689 1.8358774
7.1233826 10.757818 1.8492689
11.72406 10.744716 1.8484068
7.1599731 10.818544 1.8368325
7.2375488 10.864319 1.8507047
7.2999878 10.89 1.8899999
11.730255 10.845508 1.846426
7.2820129 10.905169 1.8423581
7.3321533 10.954203 1.8463759
11.689972 10.982727 1.8899999
11.717804 10.944505 1.8446283
7.3786621 11.006377 1.8346505
7.4440308 11.041616 1.8452921
7.506073 11.08045 1.8510909
11.689758 11.022411 1.8844614
11.712311 11.044554 1.8445282
7.4899902 11.1 1.8074999
7.5525208 11.132961 1.8427267
7.6138306 11.179795 1.8475113
11.739899 11.143784 1.8454862
7.6607361 11.234348 1.8408842
7.7116699 11.279604 1.8565512
11.767731 11.24402 1.850039
11.802307 11.259737 1.807631
7.756073 11.32655 1.844605
7.8106384 11.374498 1.8464761
11.769684 11.344361 1.8529649
11.802002 11.341387 1.8104944
7.8614502 11.429046 1.8435555
7.9109192 11.477345 1.8510585
11.765808 11.443336 1.8496914
11.800415 11.439746 1.8023095
7.9607544 11.536074 1.8439188
8.0074768 11.585736 1.8491287
11.334656 11.581538 1.8899999
11.763367 11.545478 1.8508196
11.799988 11.52 1.8000002
8.0557861 11.636845 1.8418064
8.1080322 11.678479 1.8618665
11.340698 11.648952 1.8831658
11.745728 11.64245 1.8464942
8.0899963 11.704 1.8060002
8.1448059 11.744572 1.8457484
11.35199 11.743795 1.8644657
11.420013 11.75 1.8299999
11.736115 11.745541 1.8467202
8.1807251 11.83634 1.8379664
8.2041626 11.872083 1.8643627
11.363678 11.84493 1.8453465
11.689972 11.870608 1.8878789
11.724121 11.843376 1.8414283
8.1888123 11.920952 1.8105145
8.2167664 11.946486 1.8484726
11.376587 11.947334 1.8222904
11.399963 11.986667 1.8008332
11.688293 11.961599 1.8647151
11.713867 11.941256 1.8315678
8.1900024 12.025001 1.8000002
8.2314148 12.045548 1.8455973
11.386932 12.051421 1.8048835
11.410797 12.066523 1.8093476
11.686798 12.058256 1.8413925
11.703674 12.03126 1.8266249
8.2488098 12.145452 1.844605
11.389099 12.145558 1.8068137
11.400482 12.141455 1.809638
11.684357 12.126512 1.8339033
11.70401 12.163388 1.843236
8.2739563 12.242514 1.8412967
8.3039246 12.279174 1.8758717
11.389954 12.236368 1.8094716
11.400604 12.255233 1.8072948
11.686432 12.224192 1.806128
11.722504 12.240023 1.8365002
8.2839661 12.307945 1.8164496
8.3240051 12.347614 1.8492255
11.390259 12.33424 1.8142414
11.400879 12.351989 1.814436
11.763153 12.362154 1.8333845
8.3486328 12.43885 1.84127
11.389893 12.439314 1.8239679
11.401001 12.446073 1.8221622
11.774353 12.437948 1.8261981
11.803345 12.474505 1.8199105
8.3452454 12.544462 1.8428583
11.390015 12.544862 1.8327036
11.400909 12.541907 1.8328252
11.765289 12.522351 1.8594122
11.824432 12.551655 1.8280644
8.3396301 12.641875 1.8465805
11.390076 12.632142 1.8464284
11.401764 12.64552 1.8481431
11.769989 12.67 1.8699999
11.848633 12.649829 1.8372464
8.2900085 12.764999 1.8000002
8.3235474 12.740192 1.8441987
11.390015 12.735001 1.8499999
11.40329 12.744696 1.8640385
11.871124 12.748404 1.8425584
8.2885437 12.868546 1.8458796
8.3047791 12.826885 1.8443751
11.390015 12.88 1.8899999
11.404877 12.839022 1.8806796
11.888153 12.831532 1.8465552
11.899933 12.871428 1.8429642
8.2804565 12.944919 1.8460774
8.2999878 12.9175 1.8675003
11.405579 12.911999 1.8891997
11.890015 12.905 1.8499999
11.907349 12.947537 1.8445902
8.2793274 13.039914 1.8433194
8.3002319 13.074486 1.8739662
11.921631 13.041946 1.8448205
8.28479 13.135004 1.8250165
8.3062744 13.155553 1.8601227
11.942902 13.1447 1.8451571
8.2900085 13.2 1.8150001
8.3186951 13.242107 1.8439593
11.969421 13.241842 1.8455911
12 13.289997 1.8447623
8.3417053 13.342064 1.8454051
11.989929 13.311555 1.8368888
12.005432 13.353992 1.8466101
8.3546143 13.445974 1.8460088
12.024933 13.447543 1.8455534
8.3614197 13.549181 1.8442392
12.040802 13.548784 1.8446431
8.3798218 13.633117 1.8412256
8.4113159 13.676668 1.8548765
12.055969 13.648208 1.8436885
8.4545288 13.727767 1.8394856
8.5267029 13.76405 1.8533158
12.069794 13.747602 1.8442006
8.5556335 13.835518 1.8428421
12.081512 13.847082 1.846065
12.100006 13.87 1.8400002
8.5461121 13.9385 1.8405509
12.084045 13.937847 1.8441291
12.100037 13.969444 1.8472223
8.5229492 14.052646 1.8441525
12.088928 14.042568 1.8339872
12.100433 14.055939 1.8580222
8.5238647 14.140633 1.8486986
12.087097 14.125002 1.8150005
12.102936 14.144636 1.8563972
8.5170288 14.244457 1.8436751
12.112915 14.246018 1.8453727
8.5139771 14.347067 1.8451581
12.119324 14.343032 1.8459344
8.5244141 14.443378 1.8448954
12.120148 14.44054 1.8442054
8.535553 14.550231 1.8439012
12.117126 14.545183 1.8460207
8.5431519 14.643626 1.8444376
12.115112 14.645146 1.84237
8.5357971 14.752528 1.8404598
12.112885 14.735799 1.8481293
8.5259399 14.847977 1.8488297
12.123962 14.844237 1.8428774
8.52005 14.943722 1.8482962
12.130127 14.944596 1.8460007
8.5209961 15.047353 1.8465433
12.139435 15.048263 1.843761
8.5361023 15.145551 1.8427734
12.142792 15.145585 1.8432407
8.5547791 15.246663 1.8458962
12.14267 15.241808 1.848104
8.5677185 15.349261 1.846056
12.14566 15.350919 1.8459578
8.5728149 15.436115 1.8423519
12.130432 15.448209 1.845562
8.5675659 15.546938 1.8453221
12.085815 15.575574 1.8408575
12.110138 15.532547 1.847681
8.56073 15.647572 1.8456063
12.072906 15.636065 1.84622
8.5590515 15.741644 1.841917
12.083618 15.732272 1.8409095
12.100006 15.76 1.8299999
8.5574036 15.838926 1.8457146
12.123322 15.857254 1.8390207
8.5509033 15.949433 1.8462272
12.138367 15.948928 1.8441076
8.5444641 16.040689 1.8503451
11.483307 16.07 1.8899999
12.145142 16.046185 1.8431454
8.5273743 16.15316 1.8428946
11.472046 16.147001 1.8814993
12.139496 16.145548 1.8476238
8.5204468 16.242819 1.842308
11.468231 16.238235 1.8658824
12.140808 16.244265 1.8489714
8.5153503 16.349411 1.848824
11.468658 16.336002 1.8506665
12.140594 16.342806 1.8391004
8.4899902 16.49 1.8099999
8.5088196 16.442402 1.8443999
11.46875 16.442501 1.8331251
12.130676 16.447676 1.8470526
8.4899902 16.5525 1.8218751
8.50177 16.554644 1.8617854
11.465546 16.537777 1.8222222
12.11554 16.542103 1.8491344
8.4880981 16.641876 1.8156257
8.5031738 16.640968 1.859355
11.470001 16.6325 1.8137498
12.089996 16.676666 1.8799996
12.112274 16.643011 1.84554
8.4899902 16.729414 1.821177
8.5020447 16.750885 1.8526478
11.468872 16.747776 1.8055553
12.088562 16.748571 1.8790474
12.105347 16.734447 1.8353968
8.4899902 16.841429 1.817143
8.5010376 16.83724 1.8517241
11.467133 16.831427 1.8028569
12.088409 16.8552 1.8719997
12.103424 16.841427 1.8300014
8.4844666 16.957777 1.8488889
8.5 16.946669 1.8816662
11.470001 16.949999 1.8000002
12.083954 16.948629 1.8443828
12.100006 16.903332 1.813333
8.4750061 17 1.8299999
12.079987 17 1.8357139
-5.9422913 -3.5469232 1.9000006
-5.8614349 -3.5257142 1.9028573
-5.8000031 -3.51 1.9099998
-6.0250092 -3.4400001 1.9000001
-5.9641724 -3.4545832 1.9016671
-5.8510437 -3.4657893 1.9057899
-5.7775116 -3.48 1.9099998
-6.0099945 -3.3800001 1.9000001
-5.968338 -3.3666668 1.9033332
-5.8699951 -3.3466666 1.9033332
-5.7966766 -3.3199999 1.9000001
-5.9400024 -3.3 1.9000001
-2.9178009 -2.2165217 1.9021745
-2.8538971 -2.2278726 1.9048929
-2.7551117 -2.235723 1.9125876
-2.6557007 -2.2408218 1.9176698
-2.553009 -2.2451577 1.9171014
-2.4513397 -2.2428381 1.9223576
-2.3542023 -2.2401602 1.9341164
-2.2544861 -2.2423918 1.9346914
-2.1556396 -2.2376745 1.9303088
-2.0553436 -2.2315631 1.9247732
-1.9543457 -2.2228503 1.9163938
-1.8547821 -2.2198918 1.9115739
-1.75354 -2.2179294 1.9117131
-1.6558075 -2.2143953 1.9084091
-1.568161 -2.210789 1.9039469
-1.446991 -2.2104342 1.900001
-1.3585663 -2.21 1.9000001
-1.2700043 -2.21 1.9000001
18.380341 -2.2193856 1.9035397
18.444946 -2.2295971 1.9087725
18.550995 -2.2415416 1.9132257
18.645691 -2.2408147 1.9093132
18.752808 -2.2400694 1.906538
18.844421 -2.2452195 1.9120235
18.94812 -2.2310047 1.938693
19 -2.2305198 1.9350657
-2.9395447 -2.1497936 1.9041376
-2.8529968 -2.154546 1.9192352
-2.7593536 -2.1602507 1.9340978
-2.6587524 -2.1608028 1.9420466
-2.553833 -2.1637073 1.9380903
-2.4510193 -2.1630626 1.9396262
-2.3604584 -2.1636903 1.9613605
-2.263092 -2.1688116 1.9746113
-2.1512299 -2.1603286 1.9692812
-2.0538177 -2.1594081 1.9689522
-1.9496155 -2.1610487 1.9604263
-1.8520203 -2.161134 1.9525018
-1.7555542 -2.163944 1.950151
-1.6603088 -2.1714163 1.9477029
-1.553772 -2.1779859 1.9318485
-1.4573822 -2.1728327 1.9267526
-1.3565216 -2.168349 1.9203353
-1.2541809 -2.1603062 1.9162803
-1.1560364 -2.1517816 1.9159031
-1.0575104 -2.1436832 1.9105277
-0.95315552 -2.1364477 1.9106627
-0.85217285 -2.1275518 1.9117513
-0.75616455 -2.1320143 1.9136715
-0.65982056 -2.1296239 1.9099441
-0.57302856 -2.1180329 1.9032397
0.2755127 -2.1139288 1.9015446
0.3442688 -2.1172092 1.9128571
0.43463135 -2.1126249 1.9071679
0.556427 -2.1138206 1.9061522
0.64373779 -2.1151638 1.910203
0.73712158 -2.1137154 1.9079862
0.83666992 -2.1114533 1.9029055
0.93707275 -2.1101272 1.9020228
1.0257874 -2.1100001 1.9000006
1.9782715 -2.1130929 1.9158764
2.0484619 -2.1230426 1.9191713
2.1493225 -2.1381311 1.9319367
2.2467651 -2.1436532 1.9449806
2.343811 -2.1501436 1.9455328
2.4440918 -2.1531634 1.9475555
2.5430908 -2.1527665 1.9474344
2.6426392 -2.1576071 1.9478931
2.7443542 -2.1664574 1.9473262
2.848114 -2.1621196 1.9507093
2.9423218 -2.1532395 1.943821
3.0438843 -2.1579692 1.9446244
3.1438599 -2.1583276 1.9456568
3.2407837 -2.156379 1.9435239
3.324585 -2.1506023 1.9606028
3.4400024 -2.1600001 1.9479995
3.5349731 -2.1725001 1.9324999
3.6599731 -2.1550002 1.9625001
3.7359924 -2.154 1.9560003
3.8561707 -2.1730771 1.933846
3.95224 -2.1888006 1.9105992
4.0509949 -2.1883874 1.91957
4.1462097 -2.1833556 1.9326572
4.2449341 -2.1833739 1.9396319
4.3434753 -2.1841967 1.9478374
4.4437561 -2.1817572 1.9482398
4.5442505 -2.1777835 1.9462638
4.6453857 -2.1752858 1.9515266
4.7436829 -2.1783078 1.9484549
4.8439636 -2.1827052 1.9437599
4.9475098 -2.1824756 1.9463315
5.0455322 -2.1781681 1.9454203
5.1481018 -2.1734498 1.9456625
5.2409058 -2.1665051 1.9491267
5.3461609 -2.1718259 1.9431744
5.4491882 -2.1690993 1.9445004
5.5444031 -2.15623 1.9483609
5.6462402 -2.1485367 1.9529276
5.7430115 -2.158987 1.9459491
5.8465881 -2.1605256 1.9450531
5.9372864 -2.1522472 1.9424725
6.0433044 -2.1537888 1.9401512
6.1455383 -2.1520548 1.9434237
6.2420044 -2.1488001 1.9446664
6.3418579 -2.1465523 1.9417238
6.4432068 -2.1426232 1.9309835
6.5499878 -2.1370268 1.9294591
6.6448975 -2.1262498 1.929688
6.7345886 -2.1153846 1.9130774
6.8440247 -2.1139998 1.9020004
6.9475098 -2.1149998 1.9037499
7.0375061 -2.1143749 1.9043751
7.1000061 -2.1099999 1.9000001
7.2650146 -2.1099999 1.9049997
7.3522034 -2.1166666 1.9111109
7.45224 -2.1205554 1.9166665
7.5409546 -2.1166668 1.9114294
7.6349792 -2.1116664 1.9016666
8.9899902 -2.1099999 1.9000001
9.0339966 -2.1240001 1.9019995
9.1449585 -2.1207142 1.9078574
9.2483521 -2.1216664 1.9188895
9.3458862 -2.1331818 1.9177275
9.443573 -2.146452 1.9303222
9.5568542 -2.1610527 1.9378953
9.6410217 -2.14973 1.9370265
9.7471313 -2.1728573 1.9157143
9.8565369 -2.1508694 1.9321737
9.920929 -2.1363637 1.9227276
10.015015 -2.1350002 1.9000001
10.359985 -2.1162498 1.9050002
10.452118 -2.1242859 1.9128575
10.542236 -2.1316667 1.9222231
10.655701 -2.1409523 1.9171424
10.747437 -2.1403704 1.9229636
10.846985 -2.1430004 1.9269996
10.944061 -2.1421275 1.9419146
11.030975 -2.1566668 1.9361901
11.16333 -2.1833334 1.9033332
11.255005 -2.1830001 1.908
11.346649 -2.1900001 1.9033332
11.461975 -2.1619999 1.9240003
11.542755 -2.1368179 1.9331813
11.63269 -2.1259999 1.9259996
11.746674 -2.1177776 1.9077778
16.465302 -2.1203196 1.9056149
16.54541 -2.141633 1.9111485
16.63797 -2.1584604 1.9027882
16.742523 -2.1397414 1.9029803
16.84906 -2.1311629 1.9040499
16.944275 -2.1251581 1.9049282
17.050415 -2.1285625 1.9026103
17.145782 -2.1353793 1.908411
17.223267 -2.1234298 1.9046121
17.369385 -2.1167028 1.9017973
17.446838 -2.1174202 1.9009209
17.516724 -2.1215003 1.9003305
17.657593 -2.1321301 1.9080811
17.720764 -2.138164 1.9051909
17.863464 -2.1386957 1.9052181
17.940521 -2.1510878 1.9036946
18.07135 -2.1412067 1.9091077
18.128448 -2.1353641 1.9097548
18.251648 -2.1444106 1.9111433
18.351685 -2.1562941 1.9186516
18.438965 -2.1594741 1.9306607
18.559631 -2.1639907 1.9248028
18.61142 -2.1771429 1.9199996
18.720001 -2.2 1.9099998
18.864105 -2.1776593 1.9353185
18.955627 -2.1572366 1.9732909
19 -2.1679704 1.9688401
-3.0147705 -2.0520689 1.9000001
-2.9703979 -2.0518079 1.9071283
-2.8604431 -2.0836761 1.9251456
-2.7471313 -2.0676186 1.9320626
-2.6542969 -2.0591016 1.9344931
-2.5704346 -2.0447497 1.9317484
-2.435791 -2.0407062 1.9175797
-2.3562927 -2.0470619 1.9319754
-2.254837 -2.0394733 1.947269
-2.1585541 -2.0525613 1.9601245
-2.06604 -2.0555499 1.9728203
-1.9513855 -2.0506563 1.9725499
-1.8542786 -2.04825 1.9699292
-1.7545471 -2.0716431 1.9652061
-1.6742249 -2.0469232 1.9534612
-1.5423584 -2.0847058 1.9388237
-1.4471893 -2.0297239 1.9178009
-1.3536835 -2.0323372 1.9181018
-1.2533417 -2.0392885 1.915657
-1.1490173 -2.0502779 1.9162707
-1.0534515 -2.0575461 1.9219875
-0.95082092 -2.0577984 1.9229808
-0.85310364 -2.0581319 1.9269047
-0.75601196 -2.0553596 1.9284139
-0.65385437 -2.0561814 1.9226494
-0.55923462 -2.0632153 1.9080882
-0.47846985 -2.0539215 1.8999977
-0.34916687 -2.02426 1.9000554
-0.26786804 -2.0161147 1.900291
-0.17428589 -2.01 1.9000001
-0.035049438 -2.0154622 1.9046893
0.049255371 -2.0247262 1.9102612
0.14715576 -2.0305915 1.91749
0.24832153 -2.040504 1.920568
0.34771729 -2.059896 1.9469371
0.44519043 -2.0597293 1.945075
0.54220581 -2.0616651 1.9390154
0.64395142 -2.061012 1.9394474
0.74676514 -2.0642533 1.9402599
0.84579468 -2.0661037 1.9335971
0.94598389 -2.0587616 1.9330425
1.0435791 -2.0571823 1.9279842
1.1438293 -2.0527005 1.9265532
1.243927 -2.0413246 1.9327226
1.3447876 -2.0437033 1.9324017
1.4432983 -2.0455263 1.9321666
1.5480652 -2.0492532 1.937356
1.644043 -2.0479827 1.9406605
1.7437134 -2.05831 1.9454165
1.8442383 -2.0711842 1.9489789
1.9436646 -2.0735366 1.9559975
2.0397949 -2.0741503 1.9674807
2.1368408 -2.0852735 1.9794807
2.2266541 -2.0989466 1.988421
2.3534241 -2.0347726 1.9761705
2.4394531 -2.0443361 1.9834619
2.5188599 -2.0515251 1.9900007
2.8840332 -2.0931997 1.9887991
2.9363098 -2.092083 1.9880543
3 -2.0999999 1.9899998
3.1483459 -2.0560348 1.9030814
3.2106018 -2.0285854 1.9570708
3.2999878 -2.01 1.9000001
3.4738464 -2.0291724 1.9694729
3.5232849 -2.0293336 1.9566669
6.6637878 -2.074054 1.9756761
6.7419128 -2.0716667 1.9573617
6.8432312 -2.0609331 1.951201
6.9465942 -2.050405 1.9497299
7.0433655 -2.0428567 1.9437499
7.1419983 -2.0544994 1.9321671
7.2315063 -2.0519998 1.9310002
7.3352661 -2.0542104 1.9436836
7.4525146 -2.095 1.9425001
7.553009 -2.089 1.9340005
7.6382141 -2.0817392 1.9143476
7.7354431 -2.0636358 1.9040918
7.8612671 -2.0375001 1.9081254
7.9468994 -2.0284617 1.9076924
8.0114441 -2.0157144 1.9057145
8.7550049 -2.0683334 1.9016662
8.9599915 -2.06125 1.9168749
9.0336609 -2.0530231 1.9472089
9.146637 -2.0677776 1.958889
9.243988 -2.059 1.967
9.3479309 -2.0684211 1.9663162
9.4135437 -2.0628572 1.9792857
9.581665 -2.0799999 1.9883332
9.6354675 -2.0575757 1.9736371
9.7137451 -2.0474999 1.9674997
9.8750305 -2.0508335 1.9716663
9.9127808 -2.0616 1.9636002
10.049988 -2.0250001 1.9475002
10.288208 -2.0572727 1.9181819
10.33429 -2.0510416 1.9308333
10.442413 -2.0565517 1.9486203
10.528351 -2.0565906 1.9695458
10.656342 -2.0581818 1.9699993
10.744659 -2.0680001 1.968667
10.843201 -2.0778568 1.9775004
10.934448 -2.0877776 1.9866662
11.031677 -2.0799999 1.9899998
11.149994 -2.0949998 1.9899998
11.22998 -2.07375 1.9862499
11.557495 -2.0974998 1.9849997
11.65274 -2.0749998 1.9705553
11.742859 -2.0567858 1.9553571
11.843597 -2.0492001 1.9312
11.942108 -2.0364285 1.9114289
12.017517 -2.02 1.9025002
12.570007 -2.0119998 1.9000001
12.684998 -2.03 1.9049997
12.710419 -2.0408332 1.9100003
12.842499 -2.0250001 1.9025002
12.932495 -2.0175002 1.9000001
13.089996 -2.02 1.9000001
13.15155 -2.0138464 1.9007697
13.230011 -2.02 1.9000001
13.330017 -2.0149999 1.9000001
15.840332 -2.0148275 1.9000001
16.070007 -2.02 1.9000001
16.158234 -2.0107689 1.9028196
16.247742 -2.0196044 1.9080296
16.363861 -2.0350564 1.9635868
16.442047 -2.064553 1.942102
16.543152 -2.0642903 1.9450603
16.649689 -2.0521338 1.9467654
16.746521 -2.056088 1.9471211
16.845306 -2.0571332 1.9527035
16.947937 -2.0633535 1.9530587
17.050873 -2.0587127 1.9503493
17.144806 -2.0566795 1.9513388
17.227142 -2.054621 1.9457517
17.354523 -2.0679908 1.9215584
17.443054 -2.057405 1.9207935
17.515991 -2.0710409 1.9223199
17.647247 -2.0499294 1.9375525
17.739685 -2.0535285 1.9344883
17.848541 -2.0436494 1.9400005
17.946472 -2.0424998 1.9458299
18.053955 -2.0451949 1.9362879
18.144653 -2.0453522 1.9353051
18.24231 -2.0400629 1.9460039
18.341064 -2.0508699 1.9517674
18.441315 -2.0602624 1.9543076
18.505005 -2.0374999 1.9449997
18.652466 -2.0481334 1.9372001
18.731873 -2.0445988 1.9407501
18.800018 -2.02 1.9500003
18.956757 -2.051739 1.9824367
19 -2.0482378 1.98387
-3.012207 -1.9705554 1.9000006
-2.9795074 -1.9632307 1.9018435
-2.8288574 -1.9576191 1.8999968
-2.7631378 -1.9506167 1.9095178
-2.6562347 -1.9316838 1.927475
-2.5617523 -1.9663165 1.9318404
-2.4416656 -1.9602771 1.9228125
-2.3613586 -1.9687707 1.9330306
-2.249176 -1.9546829 1.9432564
-2.1665192 -1.9557291 1.956892
-2.065094 -1.954367 1.9658027
-1.9600372 -1.9503748 1.9685011
-1.8542786 -1.9584002 1.9672766
-1.7450104 -1.9567307 1.9523077
-1.6554871 -1.9539816 1.938673
-1.5328369 -1.9445455 1.9149098
-1.4591064 -1.9550728 1.9195781
-1.3531189 -1.9627906 1.9258246
-1.2525177 -1.9531021 1.9267235
-1.1463013 -1.9543662 1.9215999
-1.0559235 -1.946858 1.9238973
-0.9526062 -1.9455662 1.9196334
-0.85351562 -1.9534788 1.9230437
-0.75413513 -1.9538548 1.9268551
-0.65571594 -1.9517709 1.9266019
-0.55142212 -1.9471368 1.9124565
-0.45368958 -1.9383507 1.9058895
-0.35113525 -1.9467211 1.9091945
-0.25570679 -1.9521555 1.9183974
-0.15203857 -1.9544209 1.9149008
-0.057678223 -1.9579003 1.9324179
0.044708252 -1.9572108 1.9430552
0.14627075 -1.959043 1.9597888
0.24539185 -1.961035 1.9688301
0.34069824 -1.9685068 1.9751406
0.44622803 -1.9729762 1.9818611
0.5475769 -1.97005 1.9753509
0.64547729 -1.9680072 1.9706407
0.74560547 -1.9687945 1.9724007
0.84487915 -1.9630562 1.972024
0.94378662 -1.9644361 1.9776645
1.046051 -1.9634054 1.9733248
1.138092 -1.9720678 1.9728045
1.2467041 -1.9805417 1.981689
1.3452454 -1.9794528 1.9817367
1.4473877 -1.9855051 1.9804387
1.5324402 -1.9872947 1.9838343
1.644989 -1.9993057 1.9861059
1.707489 -2 1.9874997
2.3432922 -1.9926862 1.9870353
3.1612244 -1.9664346 1.9021697
3.2275391 -1.9780802 1.9465194
3.3293762 -1.9540001 1.9020004
3.4719849 -1.9940002 1.9569998
3.5100098 -2 1.9700003
6.6000061 -2 1.9899998
6.9700012 -2 1.9899998
7.0480042 -1.9979999 1.9869995
7.1552124 -1.9885187 1.9774075
7.2424927 -1.9740541 1.9745951
7.3258667 -1.9544829 1.9762073
7.4760132 -1.9390001 1.9809999
7.5374756 -1.9381249 1.9668756
7.637146 -1.9171427 1.9700003
7.7533264 -1.96 1.9333329
7.8527222 -1.9745456 1.9372725
7.9585571 -1.952391 1.9519563
8.0432129 -1.9553226 1.9256444
8.1412354 -1.9274998 1.9193749
8.2466736 -1.9175 1.9074998
8.3450012 -1.9116665 1.9016666
8.4716797 -1.9166666 1.9049997
8.5429382 -1.9347061 1.9182348
8.6300049 -1.9328573 1.9299998
8.7687683 -1.9212499 1.9475002
8.8335876 -1.9292859 1.9450002
8.9692078 -1.9476922 1.9776917
9.0249939 -1.9675001 1.9729161
9.3320007 -1.992 1.9899998
9.4100037 -2 1.9899998
9.6507874 -1.9825001 1.9850001
9.7099915 -1.9866667 1.9899998
9.8900146 -1.975 1.9849997
9.9500122 -1.9712499 1.9799995
10.058838 -1.9357692 1.9692307
10.131439 -1.9455553 1.9611111
10.250763 -1.9553844 1.9757695
10.33667 -1.9809523 1.9685712
10.470001 -1.9749999 1.9841657
10.506012 -1.982 1.9899998
11.77002 -2 1.9866662
11.85849 -1.9869231 1.9746151
11.944336 -1.966087 1.96
12.04306 -1.954138 1.9420686
12.143463 -1.9412498 1.9196873
12.246674 -1.9386669 1.9126668
12.326233 -1.9325001 1.915
12.460602 -1.9211764 1.9105878
12.544586 -1.9455358 1.9133921
12.648682 -1.9537779 1.9351106
12.706421 -1.9584001 1.9427996
12.851288 -1.9486884 1.935245
12.945251 -1.9595239 1.9266672
13.062836 -1.9507501 1.9198756
13.138275 -1.9675001 1.9187498
13.226654 -1.98 1.9200001
13.354553 -1.9618183 1.9299998
13.451233 -1.9449999 1.9237504
13.528015 -1.916 1.914
13.867493 -1.915 1.9200001
13.94812 -1.9332756 1.9225864
14.047028 -1.9373569 1.9422836
14.133911 -1.9352944 1.9488235
14.259125 -1.933375 1.9281263
14.348358 -1.9406562 1.9268842
14.443695 -1.9348422 1.9360003
14.536865 -1.9336752 1.9401708
14.648468 -1.9355321 1.9252133
14.748444 -1.9328123 1.9193754
14.834991 -1.9400001 1.9200001
14.957214 -1.9299999 1.905601
15.051392 -1.9186276 1.9119596
15.134186 -1.9192003 1.9183989
15.263428 -1.9192103 1.9307017
15.345978 -1.9244845 1.9266925
15.447632 -1.9252355 1.9285293
15.549347 -1.925831 1.9328237
15.646301 -1.9312028 1.9374356
15.747742 -1.9398878 1.9395962
15.840973 -1.954893 1.9426355
15.926483 -1.9460862 1.9611301
16.058075 -1.9626923 1.9350009
16.146271 -1.9860516 1.9127989
16.248993 -1.977114 1.9335065
16.34198 -1.9658868 1.9737082
16.589996 -2 1.9859996
16.650085 -1.9971007 1.9887967
16.735809 -1.9986278 1.9885273
16.820038 -2 1.9899993
17.082886 -1.9991666 1.9891658
17.128998 -2 1.9899993
17.227356 -1.9911034 1.9851432
17.350006 -1.9985714 1.9585714
17.435028 -1.9900001 1.9599996
17.529999 -1.9630769 1.98
17.62973 -1.9800607 1.9741173
17.73764 -1.9912903 1.9822531
17.856537 -1.9900593 1.9830894
17.952576 -1.9890473 1.9778638
18.044098 -1.974416 1.9721642
18.14682 -1.958432 1.9657469
18.248749 -1.9651282 1.9679241
18.338623 -1.9583222 1.9719205
18.446075 -1.9567664 1.9663906
18.5 -1.9566666 1.96
18.653076 -1.9578189 1.9524498
18.749329 -1.9564748 1.9577007
18.801392 -1.9495746 1.9602146
18.959442 -1.9603492 1.9871202
19 -1.9475527 1.9841228
-2.9746552 -1.8728204 1.8999987
-2.8223572 -1.8528571 1.8999982
-2.7654419 -1.8544207 1.902524
-2.6486664 -1.8649042 1.9230542
-2.5758057 -1.8445656 1.9315205
-2.4419556 -1.8559352 1.9217062
-2.3575592 -1.8515948 1.9249959
-2.247757 -1.849265 1.9311185
-2.1693726 -1.8565767 1.9501681
-2.0667267 -1.8563442 1.9559736
-1.9530792 -1.8556179 1.9633698
-1.8633423 -1.8490165 1.9618034
-1.7683563 -1.8717186 1.9567204
-1.6611023 -1.8620005 1.9430914
-1.5269318 -1.8559155 1.9084506
-1.4621735 -1.853497 1.9200649
-1.3479614 -1.8490549 1.9206018
-1.2574158 -1.853242 1.9287724
-1.1430817 -1.853572 1.9396057
-1.0529327 -1.8551778 1.9451065
-0.95405579 -1.8604896 1.933991
-0.85220337 -1.8616223 1.9309163
-0.7522583 -1.8551058 1.9315567
-0.65270996 -1.8542809 1.9371548
-0.5524292 -1.8567154 1.9376941
-0.4508667 -1.8508521 1.9392562
-0.35432434 -1.8518442 1.9461389
-0.25714111 -1.8514922 1.9548473
-0.15223694 -1.8518481 1.9447517
-0.065216064 -1.8580476 1.9711256
0.048400879 -1.8685036 1.9755464
0.12030029 -1.8838043 1.9824953
0.22622681 -1.8999999 1.9899998
1.3099976 -1.85 1.9899998
3.3424988 -1.84875 1.9000001
7.3200073 -1.9 1.9899998
7.4842834 -1.8814286 1.9900002
7.5355225 -1.8574998 1.9771166
7.6275024 -1.8575001 1.9849997
7.742218 -1.8555554 1.9688892
7.8099976 -1.84 1.9899998
7.9669189 -1.8846154 1.9846148
8.0349731 -1.871154 1.9757695
8.1516113 -1.869302 1.965116
8.240448 -1.8527656 1.9578719
8.3408508 -1.8571115 1.9417787
8.4436035 -1.8525643 1.9487181
8.521698 -1.8633333 1.96
8.6373596 -1.8610525 1.9710526
8.7563782 -1.8527271 1.9700003
8.8395081 -1.8454052 1.9581084
8.9317627 -1.8581818 1.9699998
9.0211182 -1.8600001 1.9866662
10.065002 -1.8925 1.9874997
10.134308 -1.8900001 1.985714
10.25 -1.895 1.9899998
12.070007 -1.9 1.9899998
12.161255 -1.8937498 1.9750004
12.252716 -1.8672726 1.9654546
12.336945 -1.8823078 1.9592309
12.449097 -1.8809093 1.9386363
12.536285 -1.8716666 1.9475002
12.678253 -1.8530436 1.9804344
12.732666 -1.8593333 1.9793334
12.849243 -1.8559997 1.9725718
12.938263 -1.8513794 1.977931
13.040283 -1.8638597 1.9635091
13.35498 -1.88 1.9849997
13.462494 -1.8849999 1.9712496
13.55072 -1.874074 1.9466667
13.624023 -1.8388002 1.9340005
13.880737 -1.8476924 1.933846
13.946259 -1.8619319 1.9552469
14.021942 -1.8910002 1.9827509
14.179993 -1.9 1.9899998
14.26001 -1.8974999 1.9812493
14.352264 -1.8925807 1.9767747
14.444977 -1.8896823 1.9796834
14.522247 -1.8988887 1.9855556
14.655029 -1.8968749 1.9812493
14.741913 -1.8961904 1.9633327
14.809998 -1.89 1.9499998
14.984985 -1.8833333 1.9533334
15.050659 -1.8798038 1.9399977
15.130524 -1.8844644 1.9598203
15.242401 -1.8924133 1.9705753
15.347534 -1.8962301 1.9759021
15.442474 -1.8927441 1.9764714
15.534973 -1.8962821 1.9815388
15.633728 -1.8976092 1.9858704
15.723755 -1.8999999 1.98875
15.809998 -1.9 1.9899998
16.100006 -1.9 1.9899998
16.234985 -1.8924998 1.9862494
17.600006 -1.9 1.9899998
18.180817 -1.8971673 1.9883337
18.250549 -1.8668514 1.982676
18.337006 -1.8757185 1.9805884
18.45871 -1.8679804 1.9849734
18.53537 -1.8255391 1.9829035
18.648254 -1.8158703 1.9854441
18.742462 -1.8178289 1.9837012
18.845612 -1.8218656 1.9886951
18.94519 -1.8485649 1.9808164
19 -1.8466001 1.9702005
-2.815033 -1.7582141 1.9003577
-2.759491 -1.7651123 1.9033818
-2.6566925 -1.7442394 1.9083714
-2.5716705 -1.755133 1.9124665
-2.4441376 -1.7581037 1.9138803
-2.3534393 -1.7589331 1.9251299
-2.2505951 -1.7615999 1.9382005
-2.1669464 -1.773203 1.9454727
-2.0631256 -1.7503847 1.9471693
-1.9506073 -1.7555956 1.9573812
-1.8439789 -1.7565255 1.9589844
-1.7644043 -1.7476922 1.9505515
-1.6764679 -1.7551614 1.9409676
-1.5229645 -1.7524332 1.9024305
-1.4597321 -1.7531967 1.9210277
-1.3473969 -1.7494642 1.9356813
-1.2613373 -1.754986 1.9385343
-1.1426239 -1.7566165 1.9459066
-1.0579834 -1.7603824 1.9525547
-0.95292664 -1.7604374 1.9400015
-0.85324097 -1.750693 1.9397869
-0.75196838 -1.7506701 1.9404454
-0.65229797 -1.7505062 1.9454064
-0.54800415 -1.7502162 1.9568176
-0.45950317 -1.761363 1.9758143
-0.35964966 -1.7838637 1.9826784
-0.25019836 -1.7787631 1.9843292
-0.15283203 -1.7581404 1.9771428
-0.089370728 -1.7629299 1.9833136
2.0603638 -1.7485709 1.9097862
2.125061 -1.7198739 1.9262276
3.3511353 -1.7744442 1.9011116
7.7299805 -1.795 1.9899998
8.2579956 -1.7959999 1.9899998
8.352478 -1.7887499 1.9862494
8.4299927 -1.798 1.9879999
8.6199951 -1.8 1.9899998
8.757019 -1.7849998 1.9879999
8.8320007 -1.794 1.9819994
8.9199829 -1.79 1.9899998
9.0299988 -1.8 1.9899998
12.774994 -1.795 1.9899998
12.844299 -1.7885715 1.9885712
12.966003 -1.7939999 1.9899998
13.006683 -1.7950001 1.9899998
13.664856 -1.7409759 1.9286585
13.748535 -1.733151 1.9694533
13.825867 -1.7440817 1.9832659
13.940338 -1.7886665 1.9720006
18.279968 -1.7755591 1.9852529
18.325165 -1.7805958 1.9834776
18.441284 -1.756791 1.9855747
18.549377 -1.7411464 1.9823799
18.649628 -1.7542115 1.9820251
18.748932 -1.7646214 1.9796405
18.852936 -1.763113 1.9855404
18.94342 -1.7533127 1.9719138
19 -1.7520387 1.9596162
-2.7716675 -1.6955559 1.9000006
-2.6253967 -1.6735897 1.9041018
-2.5659485 -1.6578751 1.9068751
-2.447403 -1.6546839 1.9072075
-2.3596039 -1.6625919 1.9125166
-2.2546539 -1.6533601 1.9245582
-2.1518555 -1.6630619 1.9361863
-2.0631866 -1.6629089 1.9456844
-1.9570923 -1.643785 1.9511495
-1.8486328 -1.6518568 1.9467192
-1.7643433 -1.6613414 1.9440265
-1.6534271 -1.6492105 1.9260521
-1.5434875 -1.6606978 1.9103494
-1.4522552 -1.6601312 1.9192481
-1.3531494 -1.6506146 1.9422259
-1.2565155 -1.649121 1.9498787
-1.1511383 -1.6605281 1.9467893
-1.0508423 -1.6506532 1.9446483
-0.95184326 -1.6478022 1.935667
-0.8553772 -1.6454057 1.9393153
-0.75094604 -1.6507812 1.9460802
-0.65174866 -1.6523226 1.9606595
-0.56074524 -1.6613222 1.9784732
-0.48953247 -1.6966665 1.9898252
-0.15686035 -1.692096 1.9896727
-0.09715271 -1.6999999 1.9900002
2.1676025 -1.6920549 1.94173
2.2435303 -1.6589056 1.9607172
2.3161011 -1.6212111 1.9749932
3.3656921 -1.6499999 1.9000001
13.666809 -1.6566837 1.9570274
13.735413 -1.6825925 1.9842596
18.547516 -1.7000002 1.9899993
18.677765 -1.6921951 1.987926
18.759247 -1.6778913 1.9799776
18.837769 -1.6666307 1.9759159
18.955231 -1.6607472 1.9787779
19 -1.6408205 1.976706
-2.5299988 -1.584 1.9000006
-2.4493561 -1.5738095 1.9028568
-2.3602753 -1.5412391 1.9059286
-2.2605286 -1.563962 1.9225469
-2.1577759 -1.5524769 1.932199
-2.0498047 -1.5643395 1.9374528
-1.9569702 -1.5547172 1.9426908
-1.8583374 -1.5547876 1.9424968
-1.7662201 -1.5574752 1.9342713
-1.6544342 -1.5505475 1.9115071
-1.5685577 -1.5628953 1.9048233
-1.4286346 -1.5730768 1.9159346
-1.3560638 -1.5533019 1.9293122
-1.2574005 -1.5507994 1.9412684
-1.1539459 -1.5522156 1.9456067
-1.0513306 -1.5474416 1.944334
-0.95523071 -1.5533396 1.9488091
-0.85334778 -1.5554832 1.9500761
-0.7520752 -1.5507132 1.958147
-0.66091919 -1.5607007 1.9792576
-0.57984924 -1.5837284 1.9885521
2.3623047 -1.5940578 1.9826059
2.4210815 -1.5684751 1.9881325
3.375 -1.545 1.9000001
13.666534 -1.5653334 1.9813333
13.725006 -1.53 1.9899998
18.984039 -1.5950758 1.9899998
19 -1.5922848 1.9881425
-2.4396057 -1.4484618 1.8999968
-2.3569794 -1.4669051 1.9069052
-2.2566376 -1.4512308 1.9132328
-2.1422272 -1.4493749 1.9185953
-2.0516663 -1.4490579 1.924418
-1.955307 -1.4537268 1.9316111
-1.8521881 -1.4569231 1.9309587
-1.7600098 -1.4654055 1.9224315
-1.656662 -1.4873332 1.908
-1.5899963 -1.5 1.9000001
-1.3379974 -1.4515218 1.9136353
-1.2565918 -1.4511774 1.9356637
-1.1538391 -1.453073 1.9447908
-1.0543213 -1.4543769 1.9552131
-0.95332336 -1.4516771 1.9642768
-0.85133362 -1.4509224 1.9692969
-0.75692749 -1.4584532 1.978828
-0.6794281 -1.4703875 1.986599
3.3819885 -1.455 1.9000006
3.4400024 -1.47 1.9000001
13.670013 -1.5 1.9899998
-2.5155487 -1.3488889 1.9000001
-2.4484406 -1.3710239 1.9016547
-2.3525848 -1.3672167 1.9064956
-2.2549591 -1.3622382 1.9149685
-2.1485901 -1.3540299 1.9139533
-2.0522156 -1.353054 1.9196234
-1.9500122 -1.3529992 1.9202027
-1.8758392 -1.3447008 1.9203434
-1.7612457 -1.3675001 1.9025002
-1.5107117 -1.315714 1.9007149
-1.442276 -1.3378283 1.9010844
-1.3555756 -1.3547479 1.9114814
-1.2526093 -1.3520265 1.9368768
-1.1537323 -1.3552496 1.9569035
-1.0571442 -1.3525516 1.9701176
-0.95892334 -1.3562884 1.981235
-0.85887146 -1.3713081 1.9864898
-0.7648468 -1.3702924 1.989943
-0.69284058 -1.3928572 1.9900002
3.3800049 -1.365 1.9000001
3.4100037 -1.39 1.9099998
7.9650269 -1.335 1.9899998
8.0507202 -1.3421429 1.9885707
8.1099854 -1.3099999 1.9899998
-2.516922 -1.2592309 1.9000006
-2.4608765 -1.2542856 1.8999991
-2.3322296 -1.2451612 1.9003229
-2.239624 -1.2362 1.9003978
-2.149765 -1.242947 1.9031234
-2.0520782 -1.2759167 1.9159179
-1.9596863 -1.2640706 1.9190907
-1.8562775 -1.2625487 1.9180818
-1.7759399 -1.2424089 1.9113102
-1.6588745 -1.2144443 1.9000006
-1.5404205 -1.2464288 1.900063
-1.4562836 -1.2715412 1.9038219
-1.3482361 -1.2660646 1.9161177
-1.2529907 -1.258284 1.9388566
-1.1564484 -1.2592504 1.973352
-1.0625305 -1.2824658 1.9857898
-0.97164917 -1.2910693 1.9897428
3.1881409 -1.2781817 1.9000006
3.2478943 -1.2340554 1.9481869
3.3200378 -1.21 1.9533334
3.5700073 -1.275 1.9549999
3.6221619 -1.2556757 1.9429727
7.3250427 -1.2407142 1.9849997
7.4399719 -1.26 1.9666667
7.6749878 -1.21 1.9400001
7.7385559 -1.2349999 1.9542856
7.8099976 -1.21 1.9699998
7.9475098 -1.2525001 1.9775
8.0592651 -1.2461537 1.9769235
8.1125183 -1.2624999 1.9883327
-2.4899902 -1.1766667 1.9000001
-2.3580017 -1.186 1.9000001
-2.2258301 -1.1825 1.9000006
-2.1445618 -1.1599381 1.900558
-2.0411835 -1.1509045 1.9010091
-1.9620361 -1.1540661 1.910944
-1.8628235 -1.1469594 1.9157195
-1.7649231 -1.1361859 1.9152503
-1.6407928 -1.1345137 1.9013906
-1.552948 -1.1632053 1.9056296
-1.4682007 -1.1568549 1.9079862
-1.3396301 -1.1557269 1.9122715
-1.2544861 -1.1648906 1.9382267
-1.1572113 -1.1545914 1.9703317
-1.0743866 -1.1575408 1.9861875
-0.94444275 -1.1155555 1.9222221
-0.82600403 -1.11 1.9000001
-0.73226929 -1.1106454 1.9041929
-0.64338684 -1.111462 1.9144592
-0.54598999 -1.1126094 1.928184
-0.45478821 -1.1134723 1.9434347
-0.35473633 -1.11747 1.9631023
-0.2635498 -1.1221398 1.9829736
-0.19999695 -1.13 1.9899998
3.1900024 -1.14 1.9000001
3.2543335 -1.1790123 1.9332719
3.3332214 -1.1454053 1.9029722
3.4133301 -1.1266667 1.9022226
7.3059998 -1.174 1.9899998
7.4429932 -1.1379999 1.9733338
7.5339966 -1.126 1.9549999
7.6500244 -1.1566666 1.9466662
7.73526 -1.1578947 1.9394741
7.8278809 -1.1536843 1.9552627
7.9571228 -1.1485714 1.96
8.0547791 -1.149524 1.9719048
8.1058044 -1.165 1.9858327
-2.1326599 -1.0630907 1.8999972
-2.033493 -1.0601959 1.9010501
-1.9546051 -1.0538757 1.9103847
-1.8553772 -1.0490381 1.9172916
-1.7622223 -1.0465447 1.9154868
-1.6472168 -1.0466211 1.9105988
-1.5529022 -1.0498196 1.9255662
-1.4589844 -1.0528618 1.9345093
-1.3645782 -1.0508748 1.9462128
-1.2404022 -1.0604281 1.9498444
-1.1661835 -1.0668637 1.9648037
-1.0596466 -1.0820144 1.903266
-0.95669556 -1.0854676 1.9015841
-0.85301208 -1.0892298 1.9009652
-0.7578125 -1.0959934 1.9031544
-0.66111755 -1.0990399 1.9110498
-0.5609436 -1.099999 1.9252882
-0.45497131 -1.1000001 1.9450002
-0.38000488 -1.1 1.9499998
3.4153442 -1.0438462 1.9000006
4.0766907 -1.0343336 1.9196653
4.1106262 -1.0243751 1.9437504
7.4514465 -1.0592062 1.9757147
7.5293579 -1.05 1.9569693
7.6380005 -1.066 1.9419999
7.7381592 -1.0645453 1.9427271
7.859375 -1.0625 1.9506245
7.9638062 -1.0340542 1.9540539
8.0404053 -1.0487502 1.9482503
8.1000061 -1.0633334 1.9899998
8.2099915 -1.04 1.98
-2.2100067 -0.94999999 1.9000001
-2.1379547 -0.97084737 1.8999972
-2.0277557 -0.95376498 1.9005933
-1.9571228 -0.95416743 1.9076638
-1.8550873 -0.95411718 1.9163184
-1.7595062 -0.95774096 1.9175496
-1.651123 -0.95480573 1.9169059
-1.5537872 -0.95369488 1.9347439
-1.4487305 -0.95328987 1.9514241
-1.3586426 -0.95410079 1.9713845
-1.2561493 -0.96395475 1.9802999
-1.1929474 -0.98414427 1.9865732
-1.0899963 -0.99000001 1.9000001
3.4266357 -0.9666667 1.9016671
3.9500122 -0.99000001 1.9799995
4.0799866 -0.99333334 1.9566665
4.1071167 -0.98857147 1.9357147
7.4516296 -0.98833328 1.9866657
7.5518494 -0.98636365 1.9690909
7.6683044 -0.95583326 1.9566665
7.7142944 -0.93761909 1.9519053
7.8214417 -0.95142859 1.9700003
7.9599609 -0.96352947 1.971765
8.0268555 -0.96894717 1.9821048
8.1000061 -1 1.9899998
-2.2100067 -0.84666663 1.9000001
-2.1738586 -0.82153839 1.8999987
-2.0359802 -0.85087126 1.9019041
-1.9586487 -0.85559314 1.9094987
-1.857132 -0.85393661 1.9167905
-1.74263 -0.85574704 1.9124146
-1.6547546 -0.85511005 1.9173822
-1.5513 -0.85418606 1.9345694
-1.4556885 -0.85313714 1.9617004
-1.3689423 -0.85771054 1.9823389
-1.280014 -0.85666662 1.9899998
3.4400024 -0.85000002 1.9000001
7.5449829 -0.87249994 1.9824996
7.6500244 -0.88333338 1.9566669
7.7650146 -0.88 1.9749999
7.8500061 -0.87066668 1.9853334
7.9400024 -0.88999999 1.9899998
8.0261841 -0.85076916 1.9899988
-2.2233429 -0.74666667 1.9000001
-2.1409607 -0.75415295 1.9000082
-2.0497742 -0.75302708 1.9026079
-1.9563904 -0.756953 1.9134288
-1.8577728 -0.75658071 1.9198112
-1.7384644 -0.75003034 1.910037
-1.6552582 -0.75534946 1.9181948
-1.5519104 -0.75466126 1.9364214
-1.4576874 -0.75580972 1.9670792
-1.3838959 -0.75381547 1.9867878
3.4414062 -0.76714283 1.9000001
7.980011 -0.74000001 1.9899998
8.026001 -0.778 1.9899998
-2.3600006 -0.62 1.9000001
-2.1371307 -0.68828583 1.8999991
-2.051712 -0.67272282 1.9030409
-1.9489746 -0.66228449 1.9089289
-1.852478 -0.65655643 1.918335
-1.7456818 -0.65604448 1.9163742
-1.6570435 -0.65395421 1.928278
-1.5536041 -0.65545869 1.9442248
-1.4561615 -0.65710604 1.9653015
-1.3635712 -0.64879799 1.983777
-1.2915649 -0.61934429 1.9896722
-0.45999146 -0.61000001 1.9000001
3.4400024 -0.66333336 1.9000001
8.019989 -0.66000003 1.9899998
-1.927887 -0.594643 1.9060712
-1.8424835 -0.57473075 1.9175215
-1.7414246 -0.56116229 1.9130654
-1.6559448 -0.56064779 1.9226284
-1.5526276 -0.55734128 1.9401903
-1.4536133 -0.55316269 1.9583659
-1.3533936 -0.55390584 1.9786024
-1.2896118 -0.57101512 1.9891305
-0.42753601 -0.58243114 1.9003654
-0.35145569 -0.53828144 1.9132371
-0.29779053 -0.51140368 1.9229817
3.4700012 -0.58333331 1.9000001
3.5 -0.58000004 1.9000001
-1.9285278 -0.43259257 1.9000006
-1.874939 -0.41604644 1.900929
-1.7224884 -0.49937499 1.9118757
-1.6394348 -0.48287046 1.9158721
-1.5565796 -0.44908434 1.9377055
-1.4542999 -0.45331907 1.9615698
-1.3735046 -0.47980964 1.9814663
-0.31639099 -0.49636361 1.9436364
-0.25018311 -0.47487152 1.9399076
-0.16833496 -0.42670006 1.9588871
3.4660034 -0.456 1.9000001
3.5100098 -0.5 1.9000001
17.380005 -0.41612047 1.9695683
17.407379 -0.4131707 1.9660993
17.569122 -0.43909094 1.9854536
17.632507 -0.41913077 1.9756498
17.709991 -0.41 1.9899998
18.640015 -0.41 1.9899998
-1.9159851 -0.39000002 1.9000006
-1.8615417 -0.38178355 1.9013424
-1.7332306 -0.34707695 1.90169
-1.6726837 -0.32358974 1.9054708
-1.5245056 -0.37953854 1.9688706
-1.4850464 -0.3913832 1.9799943
-0.12200928 -0.39436096 1.9728379
-0.070922852 -0.36642301 1.9830108
3.480011 -0.34600002 1.9000001
3.5 -0.31 1.9000001
6.4200134 -0.34999999 1.98
14.649994 -0.31299996 1.9889998
14.754974 -0.32735291 1.9699998
14.831085 -0.32931033 1.9635348
14.964355 -0.36562499 1.9787498
15.050415 -0.35863635 1.9681807
15.125916 -0.33530626 1.9608827
15.243073 -0.32149249 1.9774628
15.345245 -0.31381825 1.9867282
15.410004 -0.31 1.9899998
15.549988 -0.31 1.9899998
17.182953 -0.31399995 1.9869995
17.270813 -0.31684217 1.9507904
17.357422 -0.34630397 1.9439745
17.437164 -0.34624779 1.9376273
17.513947 -0.32448164 1.9287992
17.65274 -0.35215351 1.9691472
17.720093 -0.34268773 1.9840965
17.799988 -0.31 1.9899998
18.670013 -0.40000001 1.9899998
-1.8173676 -0.24000002 1.9000006
-1.743988 -0.241212 1.901062
-1.6493988 -0.24870092 1.9282432
-1.5917816 -0.2326695 1.9704022
0 -0.25999999 1.9899998
1.6560059 -0.28043255 1.987453
1.7369995 -0.26450861 1.9798212
1.842041 -0.24540733 1.9820719
1.9293213 -0.23246358 1.9898543
2.0346985 -0.21999998 1.9900017
3.4728699 -0.23999999 1.9014282
